# .PCD v0.7 - Point Cloud Data file format
VERSION 0.7
FIELDS x y z intensity normal_x normal_y normal_z curvature
SIZE 4 4 4 4 4 4 4 4
TYPE F F F F F F F F
COUNT 1 1 1 1 1 1 1 1
WIDTH 628
HEIGHT 1
VIEWPOINT 0 0 0 1 0 0 0
POINTS 628
DATA ascii
17.376110076904297 6.682043075561523 -0.20534564554691315 0.0 0.0 0.0 0.0 0.0
14.992485046386719 7.664265155792236 -0.20130404829978943 0.0 0.0 0.0 0.0 0.0
5.696112632751465 11.682132720947266 -0.18479342758655548 0.0 0.0 0.0 0.0 0.0
21.0836238861084 4.616970062255859 -0.07216569781303406 0.0 0.0 0.0 0.0 0.0
20.656356811523438 4.672119617462158 -0.08245506882667542 0.0 0.0 0.0 0.0 0.0
20.13463592529297 4.750156879425049 -0.10486505180597305 0.0 0.0 0.0 0.0 0.0
19.6975040435791 4.8718180656433105 -0.1342981606721878 0.0 0.0 0.0 0.0 0.0
19.31382942199707 5.239912509918213 -0.2103147953748703 0.0 0.0 0.0 0.0 0.0
18.584569931030273 5.356813430786133 -0.2095060497522354 0.0 0.0 0.0 0.0 0.0
18.521520614624023 5.671435832977295 -0.2086402177810669 0.0 0.0 0.0 0.0 0.0
17.339139938354492 6.057648658752441 -0.20706646144390106 0.0 0.0 0.0 0.0 0.0
14.88194751739502 7.025691032409668 -0.20265042781829834 0.0 0.0 0.0 0.0 0.0
14.914141654968262 7.2591681480407715 -0.20216116309165955 0.0 0.0 0.0 0.0 0.0
5.552110195159912 11.26513957977295 -0.18595080077648163 0.0 0.0 0.0 0.0 0.0
19.453472137451172 4.822539806365967 -0.0832805335521698 0.0 0.0 0.0 0.0 0.0
19.127962112426758 4.865110874176025 -0.09274813532829285 0.0 0.0 0.0 0.0 0.0
18.622386932373047 4.96214485168457 -0.12074610590934753 0.0 0.0 0.0 0.0 0.0
18.070798873901367 4.9976959228515625 -0.09590496122837067 0.0 0.0 0.0 0.0 0.0
17.41104507446289 5.287817478179932 -0.2096230536699295 0.0 0.0 0.0 0.0 0.0
17.374549865722656 5.580661296844482 -0.20823673903942108 0.0 0.0 0.0 0.0 0.0
14.831245422363281 6.616482257843018 -0.20410500466823578 0.0 0.0 0.0 0.0 0.0
5.381521701812744 10.702264785766602 -0.1874454766511917 0.0 0.0 0.0 0.0 0.0
17.55807113647461 5.076442718505859 -0.122142493724823 0.0 0.0 0.0 0.0 0.0
17.01646614074707 5.1275458335876465 -0.07986586540937424 0.0 0.0 0.0 0.0 0.0
16.472341537475586 5.194756984710693 -0.09296796470880508 0.0 0.0 0.0 0.0 0.0
14.809200286865234 6.086460113525391 -0.20566439628601074 0.0 0.0 0.0 0.0 0.0
7.51091194152832 9.182355880737305 -0.15662042796611786 0.0 0.0 0.0 0.0 0.0
6.759970188140869 9.6191987991333 -0.16732099652290344 0.0 0.0 0.0 0.0 0.0
5.910802364349365 10.11124324798584 -0.17949384450912476 0.0 0.0 0.0 0.0 0.0
16.006601333618164 5.2591986656188965 -0.10423340648412704 0.0 0.0 0.0 0.0 0.0
15.6097993850708 5.304573059082031 -0.11393270641565323 0.0 0.0 0.0 0.0 0.0
14.920951843261719 5.468362331390381 -0.15510210394859314 0.0 0.0 0.0 0.0 0.0
14.820537567138672 5.792029857635498 -0.2063058763742447 0.0 0.0 0.0 0.0 0.0
7.529620170593262 8.79457950592041 -0.15629960596561432 0.0 0.0 0.0 0.0 0.0
14.092844009399414 5.495476722717285 -0.06807523965835571 0.0 0.0 0.0 0.0 0.0
13.40710163116455 5.582478046417236 -0.07754026353359222 0.0 0.0 0.0 0.0 0.0
7.398648738861084 8.309545516967773 -0.1582830846309662 0.0 0.0 0.0 0.0 0.0
12.578681945800781 5.686578273773193 -0.08901940286159515 0.0 0.0 0.0 0.0 0.0
11.546064376831055 5.813497066497803 -0.10338404774665833 0.0 0.0 0.0 0.0 0.0
7.270102500915527 7.820176124572754 -0.16049566864967346 0.0 0.0 0.0 0.0 0.0
10.270005226135254 5.973540782928467 -0.12117570638656616 0.0 0.0 0.0 0.0 0.0
7.133356094360352 7.3266496658325195 -0.163091778755188 0.0 0.0 0.0 0.0 0.0
8.626188278198242 6.180273056030273 -0.14415203034877777 0.0 0.0 0.0 0.0 0.0
7.011024475097656 6.82581901550293 -0.16575714945793152 0.0 0.0 0.0 0.0 0.0
6.910049915313721 6.446274757385254 -0.1680620312690735 0.0 0.0 0.0 0.0 0.0
28.58592414855957 15.217477798461914 0.2753031849861145 0.0 0.0 0.0 0.0 0.0
27.965534210205078 15.213558197021484 0.26884937286376953 0.0 0.0 0.0 0.0 0.0
27.50588607788086 15.22311782836914 0.26448333263397217 0.0 0.0 0.0 0.0 0.0
27.06110382080078 15.224245071411133 0.26040565967559814 0.0 0.0 0.0 0.0 0.0
26.733612060546875 15.215354919433594 0.25726988911628723 0.0 0.0 0.0 0.0 0.0
26.422908782958984 15.21705436706543 0.25478389859199524 0.0 0.0 0.0 0.0 0.0
25.92373275756836 15.22026252746582 0.25097861886024475 0.0 0.0 0.0 0.0 0.0
25.345266342163086 15.212438583374023 0.2467162311077118 0.0 0.0 0.0 0.0 0.0
24.771947860717773 15.218123435974121 0.28917866945266724 0.0 0.0 0.0 0.0 0.0
24.44338035583496 15.223465919494629 0.34805652499198914 0.0 0.0 0.0 0.0 0.0
24.1794490814209 15.214000701904297 0.34573230147361755 0.0 0.0 0.0 0.0 0.0
23.670177459716797 15.217891693115234 0.34233900904655457 0.0 0.0 0.0 0.0 0.0
23.25356101989746 15.221237182617188 0.33993786573410034 0.0 0.0 0.0 0.0 0.0
23.007265090942383 15.22231674194336 0.33907198905944824 0.0 0.0 0.0 0.0 0.0
22.59989356994629 15.214022636413574 0.3373497426509857 0.0 0.0 0.0 0.0 0.0
22.138341903686523 15.224499702453613 0.36215639114379883 0.0 0.0 0.0 0.0 0.0
21.83783531188965 15.208916664123535 0.2851670980453491 0.0 0.0 0.0 0.0 0.0
21.479053497314453 15.21805191040039 0.3362993597984314 0.0 0.0 0.0 0.0 0.0
21.000123977661133 15.215526580810547 0.336935818195343 0.0 0.0 0.0 0.0 0.0
20.678674697875977 15.223200798034668 0.33819347620010376 0.0 0.0 0.0 0.0 0.0
20.356182098388672 15.215357780456543 0.33908483386039734 0.0 0.0 0.0 0.0 0.0
19.86467742919922 15.22160530090332 0.3417227566242218 0.0 0.0 0.0 0.0 0.0
19.532617568969727 15.222346305847168 0.3439747989177704 0.0 0.0 0.0 0.0 0.0
19.244895935058594 15.216694831848145 0.3158940076828003 0.0 0.0 0.0 0.0 0.0
18.7379150390625 15.228283882141113 0.36988958716392517 0.0 0.0 0.0 0.0 0.0
18.324792861938477 15.215585708618164 0.2466403990983963 0.0 0.0 0.0 0.0 0.0
18.052661895751953 15.216269493103027 0.24859102070331573 0.0 0.0 0.0 0.0 0.0
17.585580825805664 15.218329429626465 0.2521122097969055 0.0 0.0 0.0 0.0 0.0
17.199705123901367 15.221816062927246 0.25540056824684143 0.0 0.0 0.0 0.0 0.0
17.003862380981445 15.218488693237305 0.2571260929107666 0.0 0.0 0.0 0.0 0.0
16.593515396118164 15.224992752075195 0.2609754204750061 0.0 0.0 0.0 0.0 0.0
29.794294357299805 7.074512004852295 0.28489992022514343 0.0 0.0 0.0 0.0 0.0
29.794551849365234 6.536222457885742 0.2820238173007965 0.0 0.0 0.0 0.0 0.0
18.088157653808594 11.639835357666016 0.32420438528060913 0.0 0.0 0.0 0.0 0.0
18.086057662963867 11.979301452636719 0.26098471879959106 0.0 0.0 0.0 0.0 0.0
10.460214614868164 15.223466873168945 0.33769553899765015 0.0 0.0 0.0 0.0 0.0
10.054006576538086 15.225061416625977 0.3438360393047333 0.0 0.0 0.0 0.0 0.0
9.63302993774414 15.223888397216797 0.35018107295036316 0.0 0.0 0.0 0.0 0.0
29.796850204467773 5.987259387969971 0.2803068459033966 0.0 0.0 0.0 0.0 0.0
29.79869842529297 6.276088237762451 0.2811778485774994 0.0 0.0 0.0 0.0 0.0
18.090681076049805 11.134279251098633 0.3055369555950165 0.0 0.0 0.0 0.0 0.0
9.21158504486084 15.208136558532715 0.5267436504364014 0.0 0.0 0.0 0.0 0.0
8.8784818649292 15.226372718811035 0.3047857880592346 0.0 0.0 0.0 0.0 0.0
29.794044494628906 5.480620861053467 0.27933433651924133 0.0 0.0 0.0 0.0 0.0
18.08810806274414 10.529205322265625 0.2840921878814697 0.0 0.0 0.0 0.0 0.0
18.090805053710938 10.772322654724121 0.2925681471824646 0.0 0.0 0.0 0.0 0.0
8.248493194580078 15.21802806854248 0.371560275554657 0.0 0.0 0.0 0.0 0.0
7.735344409942627 15.218559265136719 0.3795809745788574 0.0 0.0 0.0 0.0 0.0
7.179957866668701 15.22860336303711 0.19945162534713745 0.0 0.0 0.0 0.0 0.0
29.792970657348633 4.780035018920898 0.3061866760253906 0.0 0.0 0.0 0.0 0.0
29.78734588623047 5.058932781219482 0.2422584593296051 0.0 0.0 0.0 0.0 0.0
18.05964469909668 10.038796424865723 0.28177860379219055 0.0 0.0 0.0 0.0 0.0
6.617597579956055 15.223012924194336 0.20322580635547638 0.0 0.0 0.0 0.0 0.0
6.002991199493408 15.228721618652344 0.20747046172618866 0.0 0.0 0.0 0.0 0.0
29.79448890686035 4.374355316162109 0.2808401882648468 0.0 0.0 0.0 0.0 0.0
22.626605987548828 7.276177883148193 0.246893510222435 0.0 0.0 0.0 0.0 0.0
22.6173152923584 7.35023832321167 0.28457778692245483 0.0 0.0 0.0 0.0 0.0
17.82752799987793 9.884617805480957 0.2694287896156311 0.0 0.0 0.0 0.0 0.0
17.475631713867188 9.89205551147461 0.2802993655204773 0.0 0.0 0.0 0.0 0.0
17.110200881958008 9.88698959350586 0.2914729416370392 0.0 0.0 0.0 0.0 0.0
5.361692428588867 15.228059768676758 0.211897611618042 0.0 0.0 0.0 0.0 0.0
4.689549446105957 15.221858024597168 0.21654509007930756 0.0 0.0 0.0 0.0 0.0
29.78927230834961 3.6067028045654297 0.2842116951942444 0.0 0.0 0.0 0.0 0.0
29.792171478271484 3.9173028469085693 0.2826833426952362 0.0 0.0 0.0 0.0 0.0
23.496767044067383 6.439263820648193 0.2884674072265625 0.0 0.0 0.0 0.0 0.0
22.617168426513672 6.967750072479248 0.2835346460342407 0.0 0.0 0.0 0.0 0.0
3.9521045684814453 15.226309776306152 0.22176043689250946 0.0 0.0 0.0 0.0 0.0
29.39107322692871 3.5767624378204346 0.273431658744812 0.0 0.0 0.0 0.0 0.0
28.691953659057617 3.6636290550231934 0.16958081722259521 0.0 0.0 0.0 0.0 0.0
28.667943954467773 3.6711764335632324 0.4203016757965088 0.0 0.0 0.0 0.0 0.0
23.02383041381836 6.43885612487793 0.28324630856513977 0.0 0.0 0.0 0.0 0.0
22.630083084106445 6.5512495040893555 0.2821914553642273 0.0 0.0 0.0 0.0 0.0
3.185112476348877 15.21976089477539 0.22716091573238373 0.0 0.0 0.0 0.0 0.0
2.3536226749420166 15.217320442199707 0.23309196531772614 0.0 0.0 0.0 0.0 0.0
28.092742919921875 3.7395853996276855 0.2364901751279831 0.0 0.0 0.0 0.0 0.0
27.356836318969727 3.833392858505249 0.28553903102874756 0.0 0.0 0.0 0.0 0.0
26.750520706176758 3.90962553024292 0.26186031103134155 0.0 0.0 0.0 0.0 0.0
26.411710739135742 3.9516167640686035 0.24917849898338318 0.0 0.0 0.0 0.0 0.0
12.353878021240234 10.27466106414795 0.24404001235961914 0.0 0.0 0.0 0.0 0.0
26.2420654296875 3.9732162952423096 0.27342283725738525 0.0 0.0 0.0 0.0 0.0
25.717416763305664 4.037428379058838 0.2741914689540863 0.0 0.0 0.0 0.0 0.0
25.262550354003906 4.094184875488281 0.2778438925743103 0.0 0.0 0.0 0.0 0.0
24.897457122802734 4.140674591064453 0.2784634530544281 0.0 0.0 0.0 0.0 0.0
12.317549705505371 9.907486915588379 0.24094675481319427 0.0 0.0 0.0 0.0 0.0
24.623409271240234 4.172253608703613 0.23318195343017578 0.0 0.0 0.0 0.0 0.0
24.253002166748047 4.221125602722168 0.2871722877025604 0.0 0.0 0.0 0.0 0.0
23.737789154052734 4.285688877105713 0.278434157371521 0.0 0.0 0.0 0.0 0.0
23.216171264648438 4.351135730743408 0.280297189950943 0.0 0.0 0.0 0.0 0.0
12.06778621673584 9.627695083618164 0.2425951510667801 0.0 0.0 0.0 0.0 0.0
22.683940887451172 4.419336795806885 0.2796495258808136 0.0 0.0 0.0 0.0 0.0
22.171520233154297 4.4823198318481445 0.2781083881855011 0.0 0.0 0.0 0.0 0.0
21.671030044555664 4.546769142150879 0.2788107991218567 0.0 0.0 0.0 0.0 0.0
21.330713272094727 4.590865135192871 0.2680865228176117 0.0 0.0 0.0 0.0 0.0
21.079238891601562 4.618966579437256 0.2806781828403473 0.0 0.0 0.0 0.0 0.0
20.663122177124023 4.6712236404418945 0.27867767214775085 0.0 0.0 0.0 0.0 0.0
20.143457412719727 4.737826824188232 0.2839450538158417 0.0 0.0 0.0 0.0 0.0
19.69228172302246 4.794373512268066 0.28556084632873535 0.0 0.0 0.0 0.0 0.0
19.44005584716797 4.823040008544922 0.2744789123535156 0.0 0.0 0.0 0.0 0.0
19.133670806884766 4.862633228302002 0.2816137969493866 0.0 0.0 0.0 0.0 0.0
18.59821319580078 4.930764198303223 0.2826590836048126 0.0 0.0 0.0 0.0 0.0
18.075387954711914 4.994416236877441 0.2841746509075165 0.0 0.0 0.0 0.0 0.0
1.4082458019256592 12.406275749206543 0.22460569441318512 0.0 0.0 0.0 0.0 0.0
-4.207416534423828 15.16397762298584 0.2809755206108093 0.0 0.0 0.0 0.0 0.0
17.570295333862305 5.059081554412842 0.2852974236011505 0.0 0.0 0.0 0.0 0.0
17.017820358276367 5.126901149749756 0.28104427456855774 0.0 0.0 0.0 0.0 0.0
16.502674102783203 5.194092750549316 0.2808365821838379 0.0 0.0 0.0 0.0 0.0
7.52165412902832 9.178707122802734 0.3223998248577118 0.0 0.0 0.0 0.0 0.0
6.759003639221191 9.618063926696777 0.33946096897125244 0.0 0.0 0.0 0.0 0.0
5.91486120223999 10.108759880065918 0.3585892915725708 0.0 0.0 0.0 0.0 0.0
1.2871545553207397 12.056947708129883 0.2237919569015503 0.0 0.0 0.0 0.0 0.0
-5.024234771728516 14.931806564331055 0.2858891487121582 0.0 0.0 0.0 0.0 0.0
15.994412422180176 5.2562456130981445 0.2701965570449829 0.0 0.0 0.0 0.0 0.0
15.621426582336426 5.304987907409668 0.28557661175727844 0.0 0.0 0.0 0.0 0.0
15.018012046813965 5.379990577697754 0.2843390107154846 0.0 0.0 0.0 0.0 0.0
14.676950454711914 5.421255588531494 0.24691396951675415 0.0 0.0 0.0 0.0 0.0
7.534755706787109 8.792298316955566 0.31956297159194946 0.0 0.0 0.0 0.0 0.0
14.086264610290527 5.493982791900635 0.2648352384567261 0.0 0.0 0.0 0.0 0.0
13.402640342712402 5.581153869628906 0.28529441356658936 0.0 0.0 0.0 0.0 0.0
7.408297061920166 8.306707382202148 0.31899702548980713 0.0 0.0 0.0 0.0 0.0
12.579877853393555 5.685497283935547 0.31016233563423157 0.0 0.0 0.0 0.0 0.0
11.548190116882324 5.812612533569336 0.23021326959133148 0.0 0.0 0.0 0.0 0.0
7.273087024688721 7.818471431732178 0.31891122460365295 0.0 0.0 0.0 0.0 0.0
10.277129173278809 5.972562313079834 0.2546732425689697 0.0 0.0 0.0 0.0 0.0
7.140715599060059 7.324694633483887 0.31913599371910095 0.0 0.0 0.0 0.0 0.0
-7.855408668518066 14.185863494873047 0.3036375045776367 0.0 0.0 0.0 0.0 0.0
8.626407623291016 6.179057598114014 0.28665098547935486 0.0 0.0 0.0 0.0 0.0
6.997246265411377 6.825131893157959 0.3198559582233429 0.0 0.0 0.0 0.0 0.0
6.900439739227295 6.445125579833984 0.3202253580093384 0.0 0.0 0.0 0.0 0.0
28.582490921020508 15.211251258850098 0.787792980670929 0.0 0.0 0.0 0.0 0.0
27.973955154418945 15.223621368408203 0.7660162448883057 0.0 0.0 0.0 0.0 0.0
27.49677085876465 15.207420349121094 0.7484346628189087 0.0 0.0 0.0 0.0 0.0
27.06131935119629 15.222790718078613 0.7348752617835999 0.0 0.0 0.0 0.0 0.0
26.735807418823242 15.217449188232422 0.7244459986686707 0.0 0.0 0.0 0.0 0.0
26.402585983276367 15.21540641784668 0.7833969593048096 0.0 0.0 0.0 0.0 0.0
25.92508316040039 15.220820426940918 0.8144356608390808 0.0 0.0 0.0 0.0 0.0
25.346961975097656 15.21402359008789 0.7967453598976135 0.0 0.0 0.0 0.0 0.0
24.820226669311523 15.216474533081055 0.8098808526992798 0.0 0.0 0.0 0.0 0.0
24.443275451660156 15.220721244812012 0.8814343810081482 0.0 0.0 0.0 0.0 0.0
24.183229446411133 15.224520683288574 0.8754863739013672 0.0 0.0 0.0 0.0 0.0
23.6693172454834 15.211742401123047 0.8636924028396606 0.0 0.0 0.0 0.0 0.0
23.252992630004883 15.215253829956055 0.8568752408027649 0.0 0.0 0.0 0.0 0.0
23.006507873535156 15.213807106018066 0.8532229065895081 0.0 0.0 0.0 0.0 0.0
22.60100555419922 15.218841552734375 0.8492501974105835 0.0 0.0 0.0 0.0 0.0
22.15020179748535 15.216238021850586 0.8661751747131348 0.0 0.0 0.0 0.0 0.0
21.85145378112793 15.210110664367676 0.8100857138633728 0.0 0.0 0.0 0.0 0.0
21.479291915893555 15.22205638885498 0.8449667096138 0.0 0.0 0.0 0.0 0.0
20.999614715576172 15.226325988769531 0.8469226956367493 0.0 0.0 0.0 0.0 0.0
20.679119110107422 15.219983100891113 0.8486263751983643 0.0 0.0 0.0 0.0 0.0
20.35581398010254 15.218060493469238 0.851798415184021 0.0 0.0 0.0 0.0 0.0
19.865856170654297 15.215020179748535 0.8582356572151184 0.0 0.0 0.0 0.0 0.0
19.535358428955078 15.209748268127441 0.8635663390159607 0.0 0.0 0.0 0.0 0.0
19.228179931640625 15.224092483520508 0.8498937487602234 0.0 0.0 0.0 0.0 0.0
18.725751876831055 15.223095893859863 0.8981262445449829 0.0 0.0 0.0 0.0 0.0
18.319957733154297 15.228553771972656 0.7862042188644409 0.0 0.0 0.0 0.0 0.0
18.051555633544922 15.218222618103027 0.79259192943573 0.0 0.0 0.0 0.0 0.0
17.611228942871094 15.213163375854492 0.8329227566719055 0.0 0.0 0.0 0.0 0.0
17.24662971496582 15.22458267211914 0.7608977556228638 0.0 0.0 0.0 0.0 0.0
17.00309944152832 15.219030380249023 0.8245232701301575 0.0 0.0 0.0 0.0 0.0
16.62547492980957 15.219318389892578 0.771247148513794 0.0 0.0 0.0 0.0 0.0
29.791688919067383 7.072642803192139 0.8410193920135498 0.0 0.0 0.0 0.0 0.0
29.791501998901367 6.563506603240967 0.8351724147796631 0.0 0.0 0.0 0.0 0.0
18.086299896240234 11.64185619354248 0.6888206005096436 0.0 0.0 0.0 0.0 0.0
18.088703155517578 11.974088668823242 0.6409814953804016 0.0 0.0 0.0 0.0 0.0
10.461819648742676 15.22100830078125 0.8167022466659546 0.0 0.0 0.0 0.0 0.0
10.035167694091797 15.238834381103516 0.834773063659668 0.0 0.0 0.0 0.0 0.0
9.637736320495605 15.21908187866211 0.8505571484565735 0.0 0.0 0.0 0.0 0.0
29.797664642333984 5.98576545715332 0.8329939842224121 0.0 0.0 0.0 0.0 0.0
29.787126541137695 6.274287223815918 0.8328033685684204 0.0 0.0 0.0 0.0 0.0
18.09158706665039 11.132015228271484 0.7145546674728394 0.0 0.0 0.0 0.0 0.0
9.193374633789062 15.220744132995605 0.8692728877067566 0.0 0.0 0.0 0.0 0.0
8.723213195800781 15.225351333618164 0.8894217610359192 0.0 0.0 0.0 0.0 0.0
29.79010581970215 5.479492664337158 0.8331050872802734 0.0 0.0 0.0 0.0 0.0
18.087520599365234 10.52921199798584 0.6606583595275879 0.0 0.0 0.0 0.0 0.0
18.084871292114258 10.779515266418457 0.6828230619430542 0.0 0.0 0.0 0.0 0.0
8.245963096618652 15.2184419631958 0.9097455143928528 0.0 0.0 0.0 0.0 0.0
7.739196300506592 15.214656829833984 0.9317043423652649 0.0 0.0 0.0 0.0 0.0
7.187392711639404 15.2224760055542 0.7669403553009033 0.0 0.0 0.0 0.0 0.0
29.801054000854492 4.7772064208984375 0.8668237924575806 0.0 0.0 0.0 0.0 0.0
29.788253784179688 5.057239532470703 0.7983556985855103 0.0 0.0 0.0 0.0 0.0
18.053009033203125 10.028444290161133 0.6690095663070679 0.0 0.0 0.0 0.0 0.0
6.611935138702393 15.225015640258789 0.7871928215026855 0.0 0.0 0.0 0.0 0.0
6.012423992156982 15.221680641174316 0.8083959817886353 0.0 0.0 0.0 0.0 0.0
29.796730041503906 4.3939619064331055 0.791087806224823 0.0 0.0 0.0 0.0 0.0
22.625240325927734 7.273603439331055 0.5677134990692139 0.0 0.0 0.0 0.0 0.0
22.616024017333984 7.348489761352539 0.6604800224304199 0.0 0.0 0.0 0.0 0.0
17.82453727722168 9.886846542358398 0.6255748271942139 0.0 0.0 0.0 0.0 0.0
17.481287002563477 9.885950088500977 0.6523447632789612 0.0 0.0 0.0 0.0 0.0
17.10348892211914 9.891783714294434 0.6834015846252441 0.0 0.0 0.0 0.0 0.0
5.3819193840026855 15.215103149414062 0.8307802081108093 0.0 0.0 0.0 0.0 0.0
4.6821722984313965 15.224228858947754 0.8562695980072021 0.0 0.0 0.0 0.0 0.0
29.798297882080078 3.6551060676574707 0.7321301698684692 0.0 0.0 0.0 0.0 0.0
29.791994094848633 3.947077512741089 0.7769078016281128 0.0 0.0 0.0 0.0 0.0
23.49793815612793 6.4375996589660645 0.6683207750320435 0.0 0.0 0.0 0.0 0.0
22.617198944091797 6.965249061584473 0.6650093793869019 0.0 0.0 0.0 0.0 0.0
3.9498424530029297 15.226362228393555 0.662466287612915 0.0 0.0 0.0 0.0 0.0
29.379653930664062 3.578986406326294 0.8240931630134583 0.0 0.0 0.0 0.0 0.0
28.67626190185547 3.667442798614502 0.7577897906303406 0.0 0.0 0.0 0.0 0.0
23.027524948120117 6.438288688659668 0.6671606302261353 0.0 0.0 0.0 0.0 0.0
22.63149642944336 6.551660537719727 0.6602011919021606 0.0 0.0 0.0 0.0 0.0
3.1805381774902344 15.220867156982422 0.683089554309845 0.0 0.0 0.0 0.0 0.0
2.3383243083953857 15.223369598388672 0.7059981226921082 0.0 0.0 0.0 0.0 0.0
28.085905075073242 3.740628957748413 0.7805383205413818 0.0 0.0 0.0 0.0 0.0
27.33631706237793 3.83164119720459 0.810967743396759 0.0 0.0 0.0 0.0 0.0
26.759538650512695 3.9045019149780273 0.7696074843406677 0.0 0.0 0.0 0.0 0.0
26.411312103271484 3.950406074523926 0.786450982093811 0.0 0.0 0.0 0.0 0.0
12.339755058288574 10.27990436553955 0.6945928931236267 0.0 0.0 0.0 0.0 0.0
26.282176971435547 3.9647598266601562 0.7941169738769531 0.0 0.0 0.0 0.0 0.0
25.703149795532227 4.038227558135986 0.7723219394683838 0.0 0.0 0.0 0.0 0.0
25.268951416015625 4.093294143676758 0.7767908573150635 0.0 0.0 0.0 0.0 0.0
24.889793395996094 4.1404242515563965 0.7845461368560791 0.0 0.0 0.0 0.0 0.0
12.32593822479248 9.902867317199707 0.685068666934967 0.0 0.0 0.0 0.0 0.0
24.655380249023438 4.1693501472473145 0.7626671195030212 0.0 0.0 0.0 0.0 0.0
24.2486629486084 4.2213215827941895 0.784496545791626 0.0 0.0 0.0 0.0 0.0
23.723827362060547 4.2866692543029785 0.775972843170166 0.0 0.0 0.0 0.0 0.0
23.22313690185547 4.3494553565979 0.7802570462226868 0.0 0.0 0.0 0.0 0.0
22.930482864379883 4.399407386779785 0.6003096699714661 0.0 0.0 0.0 0.0 0.0
12.067298889160156 9.62669563293457 0.6930357813835144 0.0 0.0 0.0 0.0 0.0
23.013086318969727 4.360122203826904 0.929500162601471 0.0 0.0 0.0 0.0 0.0
22.6887149810791 4.415993690490723 0.782515823841095 0.0 0.0 0.0 0.0 0.0
22.170528411865234 4.481544494628906 0.7792167067527771 0.0 0.0 0.0 0.0 0.0
21.66539192199707 4.543307781219482 0.7773089408874512 0.0 0.0 0.0 0.0 0.0
21.328140258789062 4.591100692749023 0.7620633244514465 0.0 0.0 0.0 0.0 0.0
21.07438087463379 4.618002414703369 0.7787407636642456 0.0 0.0 0.0 0.0 0.0
20.66033363342285 4.670456886291504 0.7772864103317261 0.0 0.0 0.0 0.0 0.0
20.143781661987305 4.735082149505615 0.7811305522918701 0.0 0.0 0.0 0.0 0.0
19.712297439575195 4.789469242095947 0.788875162601471 0.0 0.0 0.0 0.0 0.0
19.460355758666992 4.819730758666992 0.7752507925033569 0.0 0.0 0.0 0.0 0.0
19.127573013305664 4.863341808319092 0.7924700379371643 0.0 0.0 0.0 0.0 0.0
18.59119415283203 4.929512023925781 0.7834439873695374 0.0 0.0 0.0 0.0 0.0
18.06918716430664 4.994352340698242 0.7939308881759644 0.0 0.0 0.0 0.0 0.0
1.398444652557373 12.408096313476562 0.6940770149230957 0.0 0.0 0.0 0.0 0.0
-4.196298599243164 15.158470153808594 0.8876025676727295 0.0 0.0 0.0 0.0 0.0
17.560178756713867 5.0594000816345215 0.7801355719566345 0.0 0.0 0.0 0.0 0.0
17.027265548706055 5.127322196960449 0.8015152812004089 0.0 0.0 0.0 0.0 0.0
16.465126037597656 5.19600248336792 0.7981769442558289 0.0 0.0 0.0 0.0 0.0
7.530209541320801 9.175539016723633 0.8010719418525696 0.0 0.0 0.0 0.0 0.0
6.786519527435303 9.6101655960083 0.8453072905540466 0.0 0.0 0.0 0.0 0.0
5.917013168334961 10.10676383972168 0.8971166610717773 0.0 0.0 0.0 0.0 0.0
1.3242301940917969 12.04481029510498 0.692074179649353 0.0 0.0 0.0 0.0 0.0
-5.038076877593994 14.934758186340332 0.9088484644889832 0.0 0.0 0.0 0.0 0.0
15.999673843383789 5.255589485168457 0.7733083367347717 0.0 0.0 0.0 0.0 0.0
15.609973907470703 5.301884174346924 0.8229020833969116 0.0 0.0 0.0 0.0 0.0
15.054474830627441 5.37285852432251 0.7430790066719055 0.0 0.0 0.0 0.0 0.0
14.67454719543457 5.4192376136779785 0.8651125431060791 0.0 0.0 0.0 0.0 0.0
7.528940677642822 8.792073249816895 0.7960836887359619 0.0 0.0 0.0 0.0 0.0
14.092419624328613 5.4930524826049805 0.7657263278961182 0.0 0.0 0.0 0.0 0.0
13.402734756469727 5.5795979499816895 0.832144558429718 0.0 0.0 0.0 0.0 0.0
7.403124809265137 8.306174278259277 0.796898365020752 0.0 0.0 0.0 0.0 0.0
12.57236099243164 5.683717727661133 0.8113619685173035 0.0 0.0 0.0 0.0 0.0
11.551612854003906 5.811132907867432 0.7871617078781128 0.0 0.0 0.0 0.0 0.0
7.281862735748291 7.816122531890869 0.7983420491218567 0.0 0.0 0.0 0.0 0.0
10.272258758544922 5.971083641052246 0.7570787668228149 0.0 0.0 0.0 0.0 0.0
7.13429069519043 7.324013710021973 0.8020498156547546 0.0 0.0 0.0 0.0 0.0
-7.881242752075195 14.19114875793457 0.9824155569076538 0.0 0.0 0.0 0.0 0.0
8.642827987670898 6.1773457527160645 0.8609630465507507 0.0 0.0 0.0 0.0 0.0
7.011017799377441 6.82310676574707 0.8053445219993591 0.0 0.0 0.0 0.0 0.0
6.916747093200684 6.443376541137695 0.8084656596183777 0.0 0.0 0.0 0.0 0.0
28.585561752319336 15.21337890625 1.3037558794021606 0.0 0.0 0.0 0.0 0.0
27.96862030029297 15.2144136428833 1.2645883560180664 0.0 0.0 0.0 0.0 0.0
27.506010055541992 15.219721794128418 1.2372583150863647 0.0 0.0 0.0 0.0 0.0
27.059356689453125 15.217741966247559 1.2116751670837402 0.0 0.0 0.0 0.0 0.0
26.734886169433594 15.21361255645752 1.3119820356369019 0.0 0.0 0.0 0.0 0.0
26.440858840942383 15.208081245422363 1.341139554977417 0.0 0.0 0.0 0.0 0.0
25.922706604003906 15.213685035705566 1.381577730178833 0.0 0.0 0.0 0.0 0.0
25.350072860717773 15.219195365905762 1.352012038230896 0.0 0.0 0.0 0.0 0.0
24.797958374023438 15.215043067932129 1.3258252143859863 0.0 0.0 0.0 0.0 0.0
24.442880630493164 15.21753215789795 1.311444640159607 0.0 0.0 0.0 0.0 0.0
24.180831909179688 15.214200973510742 1.301303505897522 0.0 0.0 0.0 0.0 0.0
23.670087814331055 15.212796211242676 1.2847018241882324 0.0 0.0 0.0 0.0 0.0
23.252099990844727 15.208109855651855 1.2728958129882812 0.0 0.0 0.0 0.0 0.0
23.00796890258789 15.220431327819824 1.2693071365356445 0.0 0.0 0.0 0.0 0.0
22.60095977783203 15.215529441833496 1.2616734504699707 0.0 0.0 0.0 0.0 0.0
22.11870002746582 15.21757984161377 1.3305761814117432 0.0 0.0 0.0 0.0 0.0
21.838760375976562 15.218504905700684 1.358411192893982 0.0 0.0 0.0 0.0 0.0
21.479761123657227 15.21303653717041 1.357438564300537 0.0 0.0 0.0 0.0 0.0
21.020606994628906 15.211395263671875 1.3336241245269775 0.0 0.0 0.0 0.0 0.0
20.679262161254883 15.219654083251953 1.2606124877929688 0.0 0.0 0.0 0.0 0.0
20.356264114379883 15.216194152832031 1.2651500701904297 0.0 0.0 0.0 0.0 0.0
19.86539077758789 15.217938423156738 1.2756112813949585 0.0 0.0 0.0 0.0 0.0
19.535247802734375 15.210090637207031 1.2831108570098877 0.0 0.0 0.0 0.0 0.0
19.19741439819336 15.21102237701416 1.2938473224639893 0.0 0.0 0.0 0.0 0.0
18.678293228149414 15.215652465820312 1.3133511543273926 0.0 0.0 0.0 0.0 0.0
18.324031829833984 15.216337203979492 1.3281002044677734 0.0 0.0 0.0 0.0 0.0
18.052087783813477 15.215980529785156 1.34054434299469 0.0 0.0 0.0 0.0 0.0
17.584997177124023 15.217914581298828 1.3642443418502808 0.0 0.0 0.0 0.0 0.0
17.199356079101562 15.2206392288208 1.3853538036346436 0.0 0.0 0.0 0.0 0.0
17.006406784057617 15.211406707763672 1.3955978155136108 0.0 0.0 0.0 0.0 0.0
16.573944091796875 15.211718559265137 1.3340204954147339 0.0 0.0 0.0 0.0 0.0
16.102487564086914 15.219996452331543 1.4133720397949219 0.0 0.0 0.0 0.0 0.0
15.736640930175781 15.21868896484375 1.3564904928207397 0.0 0.0 0.0 0.0 0.0
29.800138473510742 7.072333335876465 1.3107637166976929 0.0 0.0 0.0 0.0 0.0
29.793935775756836 6.562229633331299 1.3014639616012573 0.0 0.0 0.0 0.0 0.0
10.456932067871094 15.223882675170898 1.2981934547424316 0.0 0.0 0.0 0.0 0.0
10.058626174926758 15.219048500061035 1.3247044086456299 0.0 0.0 0.0 0.0 0.0
9.63133430480957 15.222769737243652 1.3537179231643677 0.0 0.0 0.0 0.0 0.0
29.794862747192383 5.9844651222229 1.298161268234253 0.0 0.0 0.0 0.0 0.0
29.79924201965332 6.273213863372803 1.2996249198913574 0.0 0.0 0.0 0.0 0.0
9.187739372253418 15.223654747009277 1.384385108947754 0.0 0.0 0.0 0.0 0.0
8.735963821411133 15.215429306030273 1.2393971681594849 0.0 0.0 0.0 0.0 0.0
29.796520233154297 5.477748394012451 1.3006007671356201 0.0 0.0 0.0 0.0 0.0
8.24863052368164 15.21573257446289 1.2693123817443848 0.0 0.0 0.0 0.0 0.0
7.743618965148926 15.210829734802246 1.3004521131515503 0.0 0.0 0.0 0.0 0.0
7.183866500854492 15.223304748535156 1.3361456394195557 0.0 0.0 0.0 0.0 0.0
29.793212890625 4.745605945587158 1.311158537864685 0.0 0.0 0.0 0.0 0.0
29.787710189819336 5.041259288787842 1.3045917749404907 0.0 0.0 0.0 0.0 0.0
6.627617835998535 15.213983535766602 1.3710764646530151 0.0 0.0 0.0 0.0 0.0
6.014808177947998 15.21877384185791 1.4106011390686035 0.0 0.0 0.0 0.0 0.0
29.793020248413086 4.353277683258057 1.2494823932647705 0.0 0.0 0.0 0.0 0.0
5.374716758728027 15.217598915100098 1.4520542621612549 0.0 0.0 0.0 0.0 0.0
4.684225559234619 15.221497535705566 1.4974124431610107 0.0 0.0 0.0 0.0 0.0
29.800594329833984 3.6006996631622314 1.2511718273162842 0.0 0.0 0.0 0.0 0.0
29.789226531982422 3.915492534637451 1.2384169101715088 0.0 0.0 0.0 0.0 0.0
3.9448769092559814 15.227251052856445 1.3251827955245972 0.0 0.0 0.0 0.0 0.0
29.397916793823242 3.5718605518341064 1.291500210762024 0.0 0.0 0.0 0.0 0.0
28.6842098236084 3.6633737087249756 1.2703036069869995 0.0 0.0 0.0 0.0 0.0
3.1779139041900635 15.221003532409668 1.1397409439086914 0.0 0.0 0.0 0.0 0.0
2.3316409587860107 15.225326538085938 1.1797817945480347 0.0 0.0 0.0 0.0 0.0
28.08985710144043 3.737746000289917 1.3340389728546143 0.0 0.0 0.0 0.0 0.0
27.358488082885742 3.830195426940918 1.2698559761047363 0.0 0.0 0.0 0.0 0.0
26.7568302154541 3.9043009281158447 1.2878782749176025 0.0 0.0 0.0 0.0 0.0
26.415498733520508 3.947122812271118 1.3399004936218262 0.0 0.0 0.0 0.0 0.0
26.261795043945312 3.967135190963745 1.3034929037094116 0.0 0.0 0.0 0.0 0.0
25.719539642333984 4.033870697021484 1.2863283157348633 0.0 0.0 0.0 0.0 0.0
25.267494201660156 4.092841625213623 1.2731068134307861 0.0 0.0 0.0 0.0 0.0
24.89616584777832 4.139023303985596 1.2663979530334473 0.0 0.0 0.0 0.0 0.0
24.65596580505371 4.167678356170654 1.288331389427185 0.0 0.0 0.0 0.0 0.0
24.255369186401367 4.217400550842285 1.2752960920333862 0.0 0.0 0.0 0.0 0.0
23.72802734375 4.285834789276123 1.2696186304092407 0.0 0.0 0.0 0.0 0.0
23.22216796875 4.346968650817871 1.2785245180130005 0.0 0.0 0.0 0.0 0.0
22.690946578979492 4.415104866027832 1.279288649559021 0.0 0.0 0.0 0.0 0.0
22.177474975585938 4.478604793548584 1.2794075012207031 0.0 0.0 0.0 0.0 0.0
21.670896530151367 4.5426483154296875 1.2748559713363647 0.0 0.0 0.0 0.0 0.0
21.331167221069336 4.586001873016357 1.2636337280273438 0.0 0.0 0.0 0.0 0.0
21.079572677612305 4.616514682769775 1.2850137948989868 0.0 0.0 0.0 0.0 0.0
20.659719467163086 4.669156074523926 1.2791985273361206 0.0 0.0 0.0 0.0 0.0
20.136409759521484 4.7331318855285645 1.2768806219100952 0.0 0.0 0.0 0.0 0.0
19.684642791748047 4.791306018829346 1.2780808210372925 0.0 0.0 0.0 0.0 0.0
19.432035446166992 4.8208327293396 1.279068112373352 0.0 0.0 0.0 0.0 0.0
19.121349334716797 4.860153675079346 1.2891900539398193 0.0 0.0 0.0 0.0 0.0
18.58812141418457 4.928746223449707 1.3028932809829712 0.0 0.0 0.0 0.0 0.0
18.06494140625 4.991481304168701 1.2910616397857666 0.0 0.0 0.0 0.0 0.0
-4.207874774932861 15.160941123962402 1.4958009719848633 0.0 0.0 0.0 0.0 0.0
17.559099197387695 5.057641506195068 1.2655826807022095 0.0 0.0 0.0 0.0 0.0
17.037389755249023 5.1234660148620605 1.313875675201416 0.0 0.0 0.0 0.0 0.0
16.474193572998047 5.191059112548828 1.3072236776351929 0.0 0.0 0.0 0.0 0.0
7.535014629364014 9.173187255859375 1.2815852165222168 0.0 0.0 0.0 0.0 0.0
6.769776821136475 9.61276912689209 1.355131983757019 0.0 0.0 0.0 0.0 0.0
5.915351390838623 10.106223106384277 1.2572873830795288 0.0 0.0 0.0 0.0 0.0
-5.040207386016846 14.933817863464355 1.532634973526001 0.0 0.0 0.0 0.0 0.0
15.994606971740723 5.2533135414123535 1.2897429466247559 0.0 0.0 0.0 0.0 0.0
15.611795425415039 5.3007426261901855 1.3023101091384888 0.0 0.0 0.0 0.0 0.0
15.022139549255371 5.377443313598633 1.3484537601470947 0.0 0.0 0.0 0.0 0.0
14.682219505310059 5.419106483459473 1.1767971515655518 0.0 0.0 0.0 0.0 0.0
7.529335021972656 8.790843963623047 1.2744158506393433 0.0 0.0 0.0 0.0 0.0
-5.927853584289551 14.697644233703613 1.5724925994873047 0.0 0.0 0.0 0.0 0.0
14.09770679473877 5.4920334815979 1.2723193168640137 0.0 0.0 0.0 0.0 0.0
13.414261817932129 5.579030513763428 1.2907670736312866 0.0 0.0 0.0 0.0 0.0
7.397219181060791 8.305782318115234 1.2771137952804565 0.0 0.0 0.0 0.0 0.0
12.578953742980957 5.68258810043335 1.316694736480713 0.0 0.0 0.0 0.0 0.0
11.543992042541504 5.809312343597412 1.3498857021331787 0.0 0.0 0.0 0.0 0.0
7.277176380157471 7.815406322479248 1.2801867723464966 0.0 0.0 0.0 0.0 0.0
10.279740333557129 5.969746112823486 1.2612144947052002 0.0 0.0 0.0 0.0 0.0
7.1474528312683105 7.321470737457275 1.2856237888336182 0.0 0.0 0.0 0.0 0.0
8.62617301940918 6.176214218139648 1.2956082820892334 0.0 0.0 0.0 0.0 0.0
7.003102779388428 6.822214126586914 1.2937904596328735 0.0 0.0 0.0 0.0 0.0
6.904067039489746 6.442289352416992 1.2998826503753662 0.0 0.0 0.0 0.0 0.0
28.588769912719727 15.215620040893555 1.8250304460525513 0.0 0.0 0.0 0.0 0.0
27.97184181213379 15.217082023620605 1.7694153785705566 0.0 0.0 0.0 0.0 0.0
27.504518508911133 15.215624809265137 1.7291805744171143 0.0 0.0 0.0 0.0 0.0
27.039731979370117 15.21939754486084 1.7648383378982544 0.0 0.0 0.0 0.0 0.0
26.73740577697754 15.215788841247559 1.9080207347869873 0.0 0.0 0.0 0.0 0.0
26.42266273498535 15.210319519042969 1.8805220127105713 0.0 0.0 0.0 0.0 0.0
25.924840927124023 15.216535568237305 1.8423575162887573 0.0 0.0 0.0 0.0 0.0
25.350170135498047 15.217313766479492 1.8013330698013306 0.0 0.0 0.0 0.0 0.0
24.798816680908203 15.215356826782227 1.7663713693618774 0.0 0.0 0.0 0.0 0.0
24.44346809387207 15.217412948608398 1.7467025518417358 0.0 0.0 0.0 0.0 0.0
24.179988861083984 15.208816528320312 1.8413571119308472 0.0 0.0 0.0 0.0 0.0
23.671857833862305 15.217724800109863 1.8194645643234253 0.0 0.0 0.0 0.0 0.0
23.25387954711914 15.214595794677734 1.8025554418563843 0.0 0.0 0.0 0.0 0.0
23.008134841918945 15.21849536895752 1.795649528503418 0.0 0.0 0.0 0.0 0.0
22.601131439208984 15.213540077209473 1.7846242189407349 0.0 0.0 0.0 0.0 0.0
22.14160919189453 15.214706420898438 1.837327241897583 0.0 0.0 0.0 0.0 0.0
21.79880142211914 15.205381393432617 1.8773629665374756 0.0 0.0 0.0 0.0 0.0
21.479969024658203 15.209731101989746 1.8779690265655518 0.0 0.0 0.0 0.0 0.0
20.97770118713379 15.216907501220703 1.8380428552627563 0.0 0.0 0.0 0.0 0.0
20.679729461669922 15.216251373291016 1.7823759317398071 0.0 0.0 0.0 0.0 0.0
20.356220245361328 15.217232704162598 1.7897297143936157 0.0 0.0 0.0 0.0 0.0
19.8663330078125 15.212835311889648 1.8035324811935425 0.0 0.0 0.0 0.0 0.0
19.535018920898438 15.210923194885254 1.8155934810638428 0.0 0.0 0.0 0.0 0.0
19.24370002746582 15.219929695129395 1.861126184463501 0.0 0.0 0.0 0.0 0.0
18.774702072143555 15.216429710388184 1.7800382375717163 0.0 0.0 0.0 0.0 0.0
18.326904296875 15.207650184631348 1.7665139436721802 0.0 0.0 0.0 0.0 0.0
18.050939559936523 15.218217849731445 1.785503625869751 0.0 0.0 0.0 0.0 0.0
17.585826873779297 15.215365409851074 1.8162497282028198 0.0 0.0 0.0 0.0 0.0
17.20651626586914 15.204856872558594 1.8422980308532715 0.0 0.0 0.0 0.0 0.0
17.00359344482422 15.216243743896484 1.85995352268219 0.0 0.0 0.0 0.0 0.0
16.598838806152344 15.212106704711914 1.8925772905349731 0.0 0.0 0.0 0.0 0.0
16.07062339782715 15.212048530578613 1.816854476928711 0.0 0.0 0.0 0.0 0.0
15.510675430297852 15.213784217834473 1.7423427104949951 0.0 0.0 0.0 0.0 0.0
14.918824195861816 15.215940475463867 1.794528603553772 0.0 0.0 0.0 0.0 0.0
14.54125690460205 15.222867012023926 1.8302432298660278 0.0 0.0 0.0 0.0 0.0
14.289178848266602 15.216221809387207 1.8532170057296753 0.0 0.0 0.0 0.0 0.0
13.890496253967285 15.214071273803711 1.8919626474380493 0.0 0.0 0.0 0.0 0.0
12.574687004089355 15.216804504394531 1.8830578327178955 0.0 0.0 0.0 0.0 0.0
12.255927085876465 15.215826034545898 1.9150936603546143 0.0 0.0 0.0 0.0 0.0
29.79094696044922 7.069913864135742 1.7862939834594727 0.0 0.0 0.0 0.0 0.0
11.92121696472168 15.219003677368164 1.9497408866882324 0.0 0.0 0.0 0.0 0.0
11.585643768310547 15.211339950561523 1.9839657545089722 0.0 0.0 0.0 0.0 0.0
11.221817970275879 15.217281341552734 2.023085832595825 0.0 0.0 0.0 0.0 0.0
29.79981231689453 6.532278537750244 1.7577368021011353 0.0 0.0 0.0 0.0 0.0
10.861811637878418 15.207242012023926 2.06085205078125 0.0 0.0 0.0 0.0 0.0
10.468439102172852 15.213274955749512 1.7800264358520508 0.0 0.0 0.0 0.0 0.0
10.066012382507324 15.21200942993164 1.8174183368682861 0.0 0.0 0.0 0.0 0.0
9.634574890136719 15.219073295593262 1.8587069511413574 0.0 0.0 0.0 0.0 0.0
29.79408073425293 5.982990741729736 1.77204167842865 0.0 0.0 0.0 0.0 0.0
29.803192138671875 6.271678447723389 1.8703367710113525 0.0 0.0 0.0 0.0 0.0
9.202083587646484 15.211821556091309 1.8995662927627563 0.0 0.0 0.0 0.0 0.0
8.733120918273926 15.216161727905273 1.7685456275939941 0.0 0.0 0.0 0.0 0.0
29.797555923461914 5.4762139320373535 1.776199460029602 0.0 0.0 0.0 0.0 0.0
8.247941970825195 15.214876174926758 1.8115181922912598 0.0 0.0 0.0 0.0 0.0
7.745320796966553 15.20833683013916 1.8562558889389038 0.0 0.0 0.0 0.0 0.0
7.187597274780273 15.219992637634277 1.7166469097137451 0.0 0.0 0.0 0.0 0.0
29.796607971191406 4.775387763977051 1.8187711238861084 0.0 0.0 0.0 0.0 0.0
29.79102325439453 5.054265022277832 1.7436004877090454 0.0 0.0 0.0 0.0 0.0
6.617234706878662 15.219346046447754 1.7636737823486328 0.0 0.0 0.0 0.0 0.0
6.018589019775391 15.215545654296875 1.8133974075317383 0.0 0.0 0.0 0.0 0.0
29.789714813232422 4.371242046356201 1.8041918277740479 0.0 0.0 0.0 0.0 0.0
5.363229751586914 15.2230224609375 1.8689907789230347 0.0 0.0 0.0 0.0 0.0
4.686864376068115 15.218985557556152 1.9263343811035156 0.0 0.0 0.0 0.0 0.0
29.794710159301758 3.6011769771575928 1.7428975105285645 0.0 0.0 0.0 0.0 0.0
29.792757034301758 3.9324088096618652 1.799831509590149 0.0 0.0 0.0 0.0 0.0
3.958803415298462 15.21834659576416 1.9888299703598022 0.0 0.0 0.0 0.0 0.0
29.393163681030273 3.572141170501709 1.7643080949783325 0.0 0.0 0.0 0.0 0.0
28.679149627685547 3.663727283477783 1.7920749187469482 0.0 0.0 0.0 0.0 0.0
3.1867787837982178 15.214264869689941 2.055542469024658 0.0 0.0 0.0 0.0 0.0
3.159836530685425 15.228802680969238 1.598897933959961 0.0 0.0 0.0 0.0 0.0
2.3256688117980957 15.226943016052246 1.6549409627914429 0.0 0.0 0.0 0.0 0.0
28.082643508911133 3.7390811443328857 1.818876028060913 0.0 0.0 0.0 0.0 0.0
27.359464645385742 3.8285393714904785 1.7842859029769897 0.0 0.0 0.0 0.0 0.0
26.747833251953125 3.906886100769043 1.7554363012313843 0.0 0.0 0.0 0.0 0.0
26.412067413330078 3.9474880695343018 1.786842703819275 0.0 0.0 0.0 0.0 0.0
26.235645294189453 3.970688581466675 1.7666743993759155 0.0 0.0 0.0 0.0 0.0
25.71902847290039 4.032763481140137 1.8011775016784668 0.0 0.0 0.0 0.0 0.0
25.27842903137207 4.090230941772461 1.7772300243377686 0.0 0.0 0.0 0.0 0.0
24.89593505859375 4.137903213500977 1.7612671852111816 0.0 0.0 0.0 0.0 0.0
24.652986526489258 4.168234825134277 1.8110994100570679 0.0 0.0 0.0 0.0 0.0
24.253843307495117 4.217332363128662 1.762189507484436 0.0 0.0 0.0 0.0 0.0
23.72806739807129 4.285116672515869 1.772073745727539 0.0 0.0 0.0 0.0 0.0
23.215412139892578 4.347668170928955 1.7693538665771484 0.0 0.0 0.0 0.0 0.0
22.693008422851562 4.412383556365967 1.7800910472869873 0.0 0.0 0.0 0.0 0.0
22.171581268310547 4.477960109710693 1.7737706899642944 0.0 0.0 0.0 0.0 0.0
21.675031661987305 4.539699077606201 1.7719032764434814 0.0 0.0 0.0 0.0 0.0
21.331220626831055 4.586069583892822 1.7592312097549438 0.0 0.0 0.0 0.0 0.0
21.07144546508789 4.616224765777588 1.7733254432678223 0.0 0.0 0.0 0.0 0.0
20.653942108154297 4.668694972991943 1.7771354913711548 0.0 0.0 0.0 0.0 0.0
20.143728256225586 4.7333173751831055 1.7778559923171997 0.0 0.0 0.0 0.0 0.0
19.69475746154785 4.790210247039795 1.78145170211792 0.0 0.0 0.0 0.0 0.0
19.442678451538086 4.820350646972656 1.767560601234436 0.0 0.0 0.0 0.0 0.0
19.135303497314453 4.858260154724121 1.7857059240341187 0.0 0.0 0.0 0.0 0.0
18.600116729736328 4.925683498382568 1.7900757789611816 0.0 0.0 0.0 0.0 0.0
18.07066535949707 4.991980075836182 1.7788900136947632 0.0 0.0 0.0 0.0 0.0
17.555286407470703 5.055323123931885 1.7676546573638916 0.0 0.0 0.0 0.0 0.0
17.025163650512695 5.123966217041016 1.798194408416748 0.0 0.0 0.0 0.0 0.0
16.511978149414062 5.189967155456543 1.7648210525512695 0.0 0.0 0.0 0.0 0.0
7.531246662139893 9.17270565032959 1.7650882005691528 0.0 0.0 0.0 0.0 0.0
6.774594306945801 9.610248565673828 1.8661435842514038 0.0 0.0 0.0 0.0 0.0
5.909870624542236 10.106168746948242 1.8004683256149292 0.0 0.0 0.0 0.0 0.0
15.98830509185791 5.2507853507995605 1.8282101154327393 0.0 0.0 0.0 0.0 0.0
15.616682052612305 5.299968719482422 1.7976033687591553 0.0 0.0 0.0 0.0 0.0
15.049036026000977 5.368946075439453 1.8814892768859863 0.0 0.0 0.0 0.0 0.0
14.674993515014648 5.416770935058594 1.738257646560669 0.0 0.0 0.0 0.0 0.0
7.53334903717041 8.788707733154297 1.754626750946045 0.0 0.0 0.0 0.0 0.0
14.095501899719238 5.4903645515441895 1.7914396524429321 0.0 0.0 0.0 0.0 0.0
13.394257545471191 5.576390743255615 1.7634847164154053 0.0 0.0 0.0 0.0 0.0
7.391346454620361 8.305424690246582 1.7601542472839355 0.0 0.0 0.0 0.0 0.0
-6.86087703704834 14.446457862854004 1.6148028373718262 0.0 0.0 0.0 0.0 0.0
12.560746192932129 5.680262565612793 1.8335747718811035 0.0 0.0 0.0 0.0 0.0
11.558304786682129 5.808446884155273 1.8027899265289307 0.0 0.0 0.0 0.0 0.0
7.273573875427246 7.814356327056885 1.7647438049316406 0.0 0.0 0.0 0.0 0.0
10.279631614685059 5.968303203582764 1.7708691358566284 0.0 0.0 0.0 0.0 0.0
7.142993927001953 7.320374488830566 1.772904396057129 0.0 0.0 0.0 0.0 0.0
-7.854278564453125 14.181926727294922 1.6603871583938599 0.0 0.0 0.0 0.0 0.0
8.624068260192871 6.174994945526123 1.7325834035873413 0.0 0.0 0.0 0.0 0.0
7.009278774261475 6.820424556732178 1.783471941947937 0.0 0.0 0.0 0.0 0.0
6.8849406242370605 6.44133996963501 1.7955588102340698 0.0 0.0 0.0 0.0 0.0
28.582942962646484 15.20706558227539 2.218141555786133 0.0 0.0 0.0 0.0 0.0
27.97029685974121 15.213512420654297 2.151144027709961 0.0 0.0 0.0 0.0 0.0
27.50096321105957 15.208793640136719 2.101254463195801 0.0 0.0 0.0 0.0 0.0
27.059484481811523 15.21419620513916 2.180609941482544 0.0 0.0 0.0 0.0 0.0
26.736114501953125 15.212156295776367 2.269758939743042 0.0 0.0 0.0 0.0 0.0
26.4193172454834 15.2026948928833 2.2360095977783203 0.0 0.0 0.0 0.0 0.0
25.923913955688477 15.212889671325684 2.1911613941192627 0.0 0.0 0.0 0.0 0.0
25.352378845214844 15.221059799194336 2.143829107284546 0.0 0.0 0.0 0.0 0.0
24.754230499267578 15.214041709899902 2.1536333560943604 0.0 0.0 0.0 0.0 0.0
24.442724227905273 15.212571144104004 2.2995243072509766 0.0 0.0 0.0 0.0 0.0
24.266841888427734 15.207059860229492 2.212245464324951 0.0 0.0 0.0 0.0 0.0
23.67228889465332 15.216732025146484 2.2535247802734375 0.0 0.0 0.0 0.0 0.0
23.256425857543945 15.225717544555664 2.2354226112365723 0.0 0.0 0.0 0.0 0.0
23.0080509185791 15.2155179977417 2.223322629928589 0.0 0.0 0.0 0.0 0.0
22.60222816467285 15.21877384185791 2.211483955383301 0.0 0.0 0.0 0.0 0.0
22.11957359313965 15.222277641296387 2.2025561332702637 0.0 0.0 0.0 0.0 0.0
21.79961395263672 15.227656364440918 2.200413465499878 0.0 0.0 0.0 0.0 0.0
21.480125427246094 15.224702835083008 2.1993556022644043 0.0 0.0 0.0 0.0 0.0
21.001224517822266 15.208433151245117 2.1995437145233154 0.0 0.0 0.0 0.0 0.0
20.679716110229492 15.217597007751465 2.207484722137451 0.0 0.0 0.0 0.0 0.0
20.356021881103516 15.218297004699707 2.2165443897247314 0.0 0.0 0.0 0.0 0.0
19.865812301635742 15.21562385559082 2.234036684036255 0.0 0.0 0.0 0.0 0.0
19.533050537109375 15.219672203063965 2.250399589538574 0.0 0.0 0.0 0.0 0.0
19.195178985595703 15.219107627868652 2.2690811157226562 0.0 0.0 0.0 0.0 0.0
18.643606185913086 15.213802337646484 2.2144274711608887 0.0 0.0 0.0 0.0 0.0
18.320085525512695 15.22648811340332 2.104919910430908 0.0 0.0 0.0 0.0 0.0
18.057682037353516 15.19987678527832 2.1189157962799072 0.0 0.0 0.0 0.0 0.0
17.588043212890625 15.209694862365723 2.1586802005767822 0.0 0.0 0.0 0.0 0.0
17.20182228088379 15.214102745056152 2.193251609802246 0.0 0.0 0.0 0.0 0.0
17.007305145263672 15.208191871643066 2.2101731300354004 0.0 0.0 0.0 0.0 0.0
16.598003387451172 15.213130950927734 2.251354932785034 0.0 0.0 0.0 0.0 0.0
16.034618377685547 15.210951805114746 2.2277636528015137 0.0 0.0 0.0 0.0 0.0
15.510053634643555 15.21406078338623 2.1175215244293213 0.0 0.0 0.0 0.0 0.0
14.910194396972656 15.227100372314453 2.1838927268981934 0.0 0.0 0.0 0.0 0.0
14.416190147399902 15.217408180236816 2.238443613052368 0.0 0.0 0.0 0.0 0.0
13.885993003845215 15.218489646911621 2.3014769554138184 0.0 0.0 0.0 0.0 0.0
13.470471382141113 15.21763801574707 2.0731492042541504 0.0 0.0 0.0 0.0 0.0
13.195168495178223 15.202278137207031 2.101698637008667 0.0 0.0 0.0 0.0 0.0
12.717175483703613 15.228463172912598 2.159156084060669 0.0 0.0 0.0 0.0 0.0
12.251729011535645 15.21926212310791 2.212167978286743 0.0 0.0 0.0 0.0 0.0
29.795541763305664 7.069369316101074 2.17598557472229 0.0 0.0 0.0 0.0 0.0
11.919035911560059 15.220372200012207 2.2518694400787354 0.0 0.0 0.0 0.0 0.0
11.574127197265625 15.221150398254395 2.293665647506714 0.0 0.0 0.0 0.0 0.0
29.793071746826172 6.559586524963379 2.162419319152832 0.0 0.0 0.0 0.0 0.0
10.465399742126465 15.215001106262207 2.1048595905303955 0.0 0.0 0.0 0.0 0.0
10.066654205322266 15.210707664489746 2.148627996444702 0.0 0.0 0.0 0.0 0.0
9.641867637634277 15.212678909301758 2.1965067386627197 0.0 0.0 0.0 0.0 0.0
29.792024612426758 5.98190975189209 2.1574583053588867 0.0 0.0 0.0 0.0 0.0
29.76413345336914 6.270078182220459 2.151123523712158 0.0 0.0 0.0 0.0 0.0
9.187684059143066 15.221600532531738 2.2489778995513916 0.0 0.0 0.0 0.0 0.0
8.72204303741455 15.222738265991211 2.302751302719116 0.0 0.0 0.0 0.0 0.0
29.799787521362305 5.475011348724365 2.1640853881835938 0.0 0.0 0.0 0.0 0.0
7.192942142486572 15.215652465820312 2.09836745262146 0.0 0.0 0.0 0.0 0.0
29.799348831176758 4.8161163330078125 2.18139910697937 0.0 0.0 0.0 0.0 0.0
29.800329208374023 5.1106181144714355 2.1719188690185547 0.0 0.0 0.0 0.0 0.0
6.61653470993042 15.218792915344238 2.1571407318115234 0.0 0.0 0.0 0.0 0.0
6.0250396728515625 15.210748672485352 2.2173678874969482 0.0 0.0 0.0 0.0 0.0
29.798057556152344 4.3685221672058105 2.200509548187256 0.0 0.0 0.0 0.0 0.0
5.362523078918457 15.222369194030762 2.2868239879608154 0.0 0.0 0.0 0.0 0.0
29.796430587768555 3.59958553314209 2.1453516483306885 0.0 0.0 0.0 0.0 0.0
29.791240692138672 3.8739004135131836 2.1766433715820312 0.0 0.0 0.0 0.0 0.0
29.39584732055664 3.5702524185180664 2.150874376296997 0.0 0.0 0.0 0.0 0.0
28.686559677124023 3.660248041152954 2.150841236114502 0.0 0.0 0.0 0.0 0.0
2.3339359760284424 15.22179889678955 2.130427837371826 0.0 0.0 0.0 0.0 0.0
28.08972930908203 3.7356388568878174 2.1539480686187744 0.0 0.0 0.0 0.0 0.0
27.364656448364258 3.8253908157348633 2.1655726432800293 0.0 0.0 0.0 0.0 0.0
26.7519474029541 3.9042410850524902 2.10568904876709 0.0 0.0 0.0 0.0 0.0
26.414384841918945 3.9455978870391846 2.121406078338623 0.0 0.0 0.0 0.0 0.0
1.4481573104858398 15.214520454406738 2.2081782817840576 0.0 0.0 0.0 0.0 0.0
26.260120391845703 3.965797185897827 2.128232717514038 0.0 0.0 0.0 0.0 0.0
25.712230682373047 4.035289764404297 2.161374807357788 0.0 0.0 0.0 0.0 0.0
25.25272560119629 4.090075969696045 2.1723504066467285 0.0 0.0 0.0 0.0 0.0
24.902921676635742 4.132861614227295 2.139078378677368 0.0 0.0 0.0 0.0 0.0
0.4782291352748871 15.212959289550781 2.2942724227905273 0.0 0.0 0.0 0.0 0.0
24.652524948120117 4.167618274688721 2.174880266189575 0.0 0.0 0.0 0.0 0.0
24.243854522705078 4.218733787536621 2.153944730758667 0.0 0.0 0.0 0.0 0.0
23.71021270751953 4.284382343292236 2.158715009689331 0.0 0.0 0.0 0.0 0.0
23.227148056030273 4.346756935119629 2.154050827026367 0.0 0.0 0.0 0.0 0.0
22.704729080200195 4.411075115203857 2.1567904949188232 0.0 0.0 0.0 0.0 0.0
22.18964385986328 4.476304531097412 2.1535451412200928 0.0 0.0 0.0 0.0 0.0
21.665081024169922 4.541950702667236 2.156730890274048 0.0 0.0 0.0 0.0 0.0
21.33107566833496 4.583343029022217 2.1474385261535645 0.0 0.0 0.0 0.0 0.0
21.087053298950195 4.613217353820801 2.156984329223633 0.0 0.0 0.0 0.0 0.0
20.666996002197266 4.667110443115234 2.15657901763916 0.0 0.0 0.0 0.0 0.0
20.133481979370117 4.732338905334473 2.1605632305145264 0.0 0.0 0.0 0.0 0.0
19.69929313659668 4.788107395172119 2.1593804359436035 0.0 0.0 0.0 0.0 0.0
19.45855712890625 4.815698623657227 2.1682379245758057 0.0 0.0 0.0 0.0 0.0
19.12731170654297 4.857789993286133 2.163003444671631 0.0 0.0 0.0 0.0 0.0
18.58661651611328 4.928103923797607 2.164320707321167 0.0 0.0 0.0 0.0 0.0
18.10093879699707 4.991116046905518 2.151188373565674 0.0 0.0 0.0 0.0 0.0
-4.1979217529296875 15.155839920043945 2.104238986968994 0.0 0.0 0.0 0.0 0.0
17.5577449798584 5.054427146911621 2.156174659729004 0.0 0.0 0.0 0.0 0.0
17.02170753479004 5.122119426727295 2.1616806983947754 0.0 0.0 0.0 0.0 0.0
16.48472785949707 5.190594673156738 2.125507354736328 0.0 0.0 0.0 0.0 0.0
7.527000427246094 9.172757148742676 2.0900676250457764 0.0 0.0 0.0 0.0 0.0
6.772893905639648 9.609726905822754 2.2096314430236816 0.0 0.0 0.0 0.0 0.0
-5.050514221191406 14.935586929321289 2.158627986907959 0.0 0.0 0.0 0.0 0.0
15.994355201721191 5.25070333480835 2.1752328872680664 0.0 0.0 0.0 0.0 0.0
